-262.5588,-29.8653,220.3399,-0.0829618,-0.9965527,-0.0001033
-263.9515,-29.7384,220.34,-0.1287835,-0.9916727,-0.0001221
-265.2422,-29.514,220.34,-0.1726985,-0.9849747,-0.0001361
-266.5304,-29.275,220.34,-0.2162726,-0.9763330,-0.0001499
-267.3293,-29.072,220.34,-0.2429259,-0.9700448,-0.0001483
-268.1248,-28.8552,220.3399,-0.2693970,-0.9630292,-0.0001465
-269.2894,-28.5224,220.3397,-0.3062969,-0.9519360,-0.0001364
-270.4526,-28.09,220.3398,-0.3440772,-0.9389413,-0.0001295
-271.6157,-27.6577,220.3399,-0.3813084,-0.9244479,-0.0001224
-272.7758,-27.1179,220.3399,-0.4216115,-0.9067766,-0.0001251
-273.93,-26.5656,220.34,-0.4610981,-0.8873492,-0.0001275
-275.08820000000003,-25.9,220.3398,-0.5023991,-0.8646359,-0.0001267
-276.2401,-25.2236,220.3397,-0.5425839,-0.8400016,-0.0001255
-277.41179999999997,-24.401,220.34,-0.5800186,-0.8146032,-0.0001226
-278.5697,-23.5591,220.3403,-0.6162664,-0.7875378,-0.0001194
-279.4424,-22.8154,220.34,-0.6476802,-0.7619123,-0.0001221
-280.3126,-22.069,220.3396,-0.6780296,-0.7350346,-0.0001245
-281.18489999999997,-21.2037,220.3394,-0.7065753,-0.7076378,-0.0001383
-282.0461,-20.3271,220.3392,-0.7340149,-0.6791334,-0.0001519
-282.5718,-19.7527,220.3389,-0.7522256,-0.6589056,-0.0001577
-283.3281,-18.8264,220.3388,-0.7771839,-0.6292736,-0.0001547
-284.0777,-17.8947,220.3387,-0.8009756,-0.5986970,-0.0001515
-284.8062,-16.8249,220.33859999999999,-0.8255349,-0.5643510,-0.0001525
-285.5302,-15.752,220.33859999999999,-0.8486225,-0.5289989,-0.0001532
-286.1112,-14.7246,220.33859999999999,-0.8693123,-0.4942631,-0.0001688
-286.687,-13.6943,220.3387,-0.8885811,-0.4587195,-0.0001841
-287.066,-12.8988,220.3387,-0.9028158,-0.4300275,-0.0001876
-287.4275,-12.095,220.3387,-0.9161242,-0.4008944,-0.0001909
-287.8434,-11.1599,220.3385,-0.9288500,-0.3704560,-0.0001893
-288.2952,-9.8959,220.33859999999999,-0.9444206,-0.3287395,-0.0001852
-288.7298,-8.626,220.3387,-0.9581187,-0.2863713,-0.0001807
-288.9956,-7.6168,220.3387,-0.9678363,-0.2515807,-0.0001750
-289.2432,-6.6029,220.33859999999999,-0.9762910,-0.2164619,-0.0001690
-289.4179,-5.8799,220.33859999999999,-0.9813191,-0.1923870,-0.0001661
-289.6003,-4.7203,220.33859999999999,-0.9879112,-0.1550208,-0.0001650
-289.7828,-3.5608,220.33859999999999,-0.9930810,-0.1174314,-0.0001637
-289.8832,-2.4025,220.3385,-0.9968069,-0.0798495,-0.0001588
-289.9609,-1.2425,220.3384,-0.9991111,-0.0421538,-0.0001536
-289.9937,-0.524,220.3384,-0.9998666,-0.0163306,-0.0001459
-289.9685,0.6339,220.33859999999999,-0.9997615,0.0218363,-0.0001328
-289.929,1.7916,220.3389,-0.9982001,0.0599715,-0.0001196
-289.9111,2.2314,220.3382,-0.9973874,0.0722378,-0.0001161
-289.7837,3.3903,220.3382,-0.9939114,0.1101822,-0.0001103
-289.6505,4.5486,220.3381,-0.9889924,0.1479666,-0.0001043
-289.4293,5.7056,220.3381,-0.9823572,0.1870142,-0.0001055
-289.1968,6.8605,220.3382,-0.9741810,0.2257684,-0.0001066
-288.885,8.0185,220.3382,-0.9645533,0.2638881,-0.0001103
-288.6411,8.8453,220.3381,-0.9561946,0.2927317,-0.0001141
-288.3972,9.6722,220.3381,-0.9469736,0.3213113,-0.0001178
-287.9053,10.9499,220.3379,-0.9318969,0.3627233,-0.0001221
-287.39300000000003,12.2197,220.3377,-0.9150101,0.4034308,-0.0001261
-286.7622,13.501,220.3377,-0.8950916,0.4458823,-0.0001304
-286.1401,14.7119,220.33780000000002,-0.8746318,0.4847878,-0.0001343
-285.4845,15.7826,220.33780000000002,-0.8525943,0.5225734,-0.0001220
-284.8162,16.8455,220.3379,-0.8289255,0.5593591,-0.0001096
-284.0176,17.9366,220.3375,-0.8022695,0.5969620,0.0000104
-283.2032,19.0159,220.3371,-0.7739091,0.6332967,0.0001304
-282.4364,19.8755,220.3366,-0.7486718,0.6629408,0.0002558
-281.6697,20.7352,220.3361,-0.7222997,0.6915801,0.0003807
-281.0802,21.3178,220.3362,-0.7025811,0.7116036,0.0003552
-280.4801,21.8897,220.3363,-0.6823076,0.7310651,0.0003293
-279.7244,22.5971,220.3366,-0.6571025,0.7538012,0.0002133
-278.5667,23.5318,220.3369,-0.6174336,0.7866230,0.0000355
-277.4067,24.4322,220.3369,-0.5787148,0.8155300,-0.0000647
-276.2478,25.1911,220.3371,-0.5422510,0.8402166,-0.0000781
-275.0778,25.933,220.3372,-0.5047358,0.8632739,-0.0000914
-272.7615,27.149,220.3376,-0.4257435,0.9048439,-0.0000664
-267.904,28.9362,220.3374,-0.2640114,0.9645196,-0.0000928
-254.6526,29.5192,222.0314,0.1782235,0.9839900,0.0002051
-250.8629,28.5506,222.0323,0.3072072,0.9516426,-0.0000778
-248.4025,27.6412,222.0323,0.3895537,0.9210037,-0.0001065
-246.0833,26.5502,222.0324,0.4681889,0.8836284,-0.0001069
-243.756,25.1941,222.0324,0.5438976,0.8391516,-0.0001070
-241.6289,23.6832,222.0325,0.6124929,0.7904761,-0.0001203
-240.6695,22.9273,222.0326,0.6450625,0.7641298,-0.0001325
-240.0734,22.4073,222.0326,0.6654851,0.7464111,-0.0001458
-239.4853,21.8581,222.0325,0.6849237,0.7286148,-0.0001574
-238.9032,21.3025,222.0325,0.7038865,0.7103124,-0.0001688
-238.224,20.6178,222.0327,0.7244404,0.6893374,-0.0001762
-237.44,19.7404,222.0327,0.7512394,0.6600298,-0.0001745
-236.6706,18.8502,222.0327,0.7768535,0.6296813,-0.0001725
-235.9629,17.9113,222.0326,0.8025957,0.5965234,-0.0001597
-235.2672,16.9634,222.0326,0.8269235,0.5623143,-0.0001466
-234.6541,16.0082,222.0326,0.8470773,0.5314696,-0.0001318
-234.20420000000001,15.28,222.0326,0.8618384,0.5071830,-0.0001223
-233.76330000000002,14.5466,222.0327,0.8759032,0.4824868,-0.0001128
-233.2069,13.4358,222.0327,0.8952370,0.4455903,-0.0001154
-232.6504,12.325,222.0327,0.9130174,0.4079206,-0.0001179
-232.1802,11.1677,222.0328,0.9278672,0.3729107,-0.0001235
-231.727,10.0036,222.0329,0.9413752,0.3373614,-0.0001289
-231.5225,9.4023,222.0329,0.9495377,0.3136529,-0.0001258
-231.25900000000001,8.5123,222.0329,0.9588121,0.2840412,-0.0001166
-230.9954,7.6222,222.03300000000002,0.9671633,0.2541559,-0.0001073
-230.8045,6.8653,222.0331,0.9746279,0.2238312,-0.0000966
-230.5709,5.7092,222.0331,0.9826185,0.1856365,-0.0000872
-230.35,4.5506,222.0331,0.9891128,0.1471592,-0.0000777
-230.19729999999998,3.2196,222.0329,0.9943804,0.1058662,-0.0000821
-230.0609,1.8869,222.0327,0.9979248,0.0643898,-0.0000865
-230.034,0.5874,222.03300000000002,0.9997913,0.0204289,-0.0001114
-230.0148,-0.7122,222.0334,0.9997221,-0.0235715,-0.0001361
-230.0704,-1.7113,222.0334,0.9982996,-0.0582916,-0.0001503
-230.1433,-2.7093,222.0333,0.9956716,-0.0929412,-0.0001644
-230.2159,-3.5535,222.0334,0.9927337,-0.1203316,-0.0001675
-230.3987,-4.7147,222.0335,0.9875575,-0.1572580,-0.0001681
-230.5814,-5.876,222.0337,0.9810083,-0.1939656,-0.0001684
-230.8991,-7.194,222.0337,0.9712881,-0.2379062,-0.0001662
-231.2363,-8.5072,222.03379999999999,0.9596008,-0.2813650,-0.0001637
-231.5981,-9.5871,222.03379999999999,0.9468467,-0.3216851,-0.0001461
-231.9723,-10.6629,222.0339,0.9323993,-0.3614298,-0.0001282
-232.21620000000001,-11.29,222.034,0.9263788,-0.3765931,-0.0001217
-232.7049,-12.3797,222.0341,0.9111840,-0.4119996,-0.0001165
-233.19729999999998,-13.4678,222.0341,0.8946367,-0.4467944,-0.0001111
-233.829,-14.618,222.0341,0.8735709,-0.4866968,-0.0001173
-234.475,-15.7601,222.0341,0.8507267,-0.5256083,-0.0001232
-235.1948,-16.8265,222.0342,0.8265184,-0.5629097,-0.0001390
-235.9186,-17.8901,222.0343,0.8006757,-0.5990980,-0.0001545
-236.7389,-18.9089,222.0344,0.7756167,-0.6312042,-0.0001714
-237.5751,-19.9146,222.0344,0.7492711,-0.6622633,-0.0001881
-238.1225,-20.5029,222.0345,0.7309820,-0.6823967,-0.0001869
-238.685,-21.077,222.0345,0.7121521,-0.7020252,-0.0001856
-239.6841,-22.0658,222.0345,0.6766717,-0.7362848,-0.0001669
-240.5525,-22.8117,222.0348,0.6457638,-0.7635373,-0.0001489
-241.424,-23.5539,222.0351,0.6137593,-0.7894932,-0.0001307
-242.4233,-24.2819,222.0346,0.5838353,-0.8118721,-0.0001221
-243.4337,-24.9943,222.0342,0.5530961,-0.8331175,-0.0001133
-243.7656,-25.2274,222.034,0.5448825,-0.8385124,-0.0001127
-244.9138,-25.9,222.03379999999999,0.5030056,-0.8642832,-0.0001169
-246.067,-26.5638,222.0335,0.4599124,-0.8879643,-0.0001210
-247.3206,-27.1632,222.0336,0.4174437,-0.9087028,-0.0001300
-248.5168,-27.7088,222.0336,0.3768069,-0.9262918,-0.0001383
-249.6146,-28.1186,222.0336,0.3424798,-0.9395252,-0.0001467
-250.714,-28.5239,222.0336,0.3076892,-0.9514869,-0.0001549
-251.9522,-28.8766,222.0336,0.2662297,-0.9639096,-0.0001550
-253.1956,-29.2103,222.0336,0.2242715,-0.9745267,-0.0001548
-254.1952,-29.4145,222.0333,0.1918617,-0.9814220,-0.0001415
-255.1247,-29.5807,222.0336,0.1600174,-0.9871142,-0.0001229
-256.0556,-29.7394,222.0339,0.1280056,-0.9917734,-0.0001041
-257.4446,-29.8636,222.0344,0.0824276,-0.9965970,-0.0000877
-258.8348,-29.973,222.0348,0.0366765,-0.9993272,-0.0000710
-259.996,-29.9771,222.0348,-0.0016130,-0.9999987,-0.0000755
-261.1571,-29.9733,222.0347,-0.0399001,-0.9992037,-0.0000799
-262.555,-29.8659,222.0349,-0.0836560,-0.9964947,-0.0000977
-263.9512,-29.7385,222.0351,-0.1272512,-0.9918705,-0.0001153
-265.1525,-29.5306,222.035,-0.1699469,-0.9854532,-0.0001324
-266.3528,-29.3167,222.0348,-0.2123257,-0.9771989,-0.0001491
-267.7194,-28.9659,222.035,-0.2568735,-0.9664450,-0.0001514
-268.5015,-28.7477,222.0349,-0.2831200,-0.9590845,-0.0001459
-269.2823,-28.5248,222.0347,-0.3091562,-0.9510113,-0.0001402
-270.4453,-28.0926,222.0348,-0.3469834,-0.9378712,-0.0001332
-271.6084,-27.6605,222.0349,-0.3842543,-0.9232273,-0.0001259
-272.7683,-27.122,222.0349,-0.4247484,-0.9053114,-0.0001270
-273.9218,-26.5697,222.035,-0.4644096,-0.8856205,-0.0001279
-275.0875,-25.9007,222.0348,-0.5027618,-0.8644250,-0.0001262
-276.2462,-25.2197,222.0347,-0.5401487,-0.8415696,-0.0001242
-276.9806,-24.7036,222.0346,-0.5667476,-0.8238915,-0.0001221
-277.7119,-24.1829,222.0346,-0.5927685,-0.8053729,-0.0001199
-278.6754,-23.4696,222.0353,-0.6213765,-0.7835122,-0.0001177
-279.4935,-22.7722,222.0349,-0.6508485,-0.7592076,-0.0001198
-280.3092,-22.0721,222.0345,-0.6793708,-0.7337951,-0.0001218
-281.1812,-21.2075,222.0343,-0.7080179,-0.7061944,-0.0001357
-282.0422,-20.332,222.0341,-0.7355446,-0.6774763,-0.0001494
-282.5678,-19.7579,222.03379999999999,-0.7540540,-0.6568124,-0.0001549
-283.3277,-18.8277,222.0337,-0.7776774,-0.6286636,-0.0001517
-284.0802,-17.8916,222.0336,-0.8002506,-0.5996658,-0.0001484
-284.8046,-16.8277,222.0335,-0.8264092,-0.5630700,-0.0001488
-285.5245,-15.7608,222.0335,-0.8508956,-0.5253348,-0.0001489
-286.1083,-14.7309,222.0335,-0.8706676,-0.4918718,-0.0001617
-286.6858,-13.6974,222.0335,-0.8891243,-0.4576658,-0.0001742
-287.2496,-12.4942,222.03379999999999,-0.9082380,-0.4184540,-0.0001821
-287.5876,-11.7385,222.0336,-0.9197422,-0.3925230,-0.0001834
-287.9113,-10.9768,222.0334,-0.9305062,-0.3662760,-0.0001845
-288.312,-9.8484,222.0334,-0.9449898,-0.3270997,-0.0001826
-288.7036,-8.7168,222.0334,-0.9578248,-0.2873528,-0.0001805
-288.9314,-7.8787,222.0335,-0.9657393,-0.2595141,-0.0001759
-289.1404,-7.0355,222.0335,-0.9728449,-0.2314580,-0.0001711
-289.4169,-5.8847,222.0335,-0.9816920,-0.1904751,-0.0001645
-289.6004,-4.7195,222.0335,-0.9878609,-0.1553410,-0.0001639
-289.7839,-3.5543,222.0335,-0.9927728,-0.1200092,-0.0001631
-289.8837,-2.4027,222.0334,-0.9968114,-0.0797937,-0.0001582
-289.9611,-1.2492,222.0333,-0.9992216,-0.0394479,-0.0001531
-289.9893,-0.2844,222.0333,-0.9999784,-0.0065752,-0.0001426
-289.9616,0.9698,222.0332,-0.9994045,0.0345051,-0.0001269
-289.9116,2.2231,222.0331,-0.9971437,0.0755272,-0.0001109
-289.785,3.3823,222.03300000000002,-0.9935474,0.1134180,-0.0001011
-289.6515,4.5406,222.0329,-0.9885117,0.1511444,-0.0000911
-289.4103,5.8012,222.03300000000002,-0.9809431,0.1942954,-0.0000882
-289.1467,7.0573,222.03300000000002,-0.9714917,0.2370734,-0.0000850
-288.7928,8.3292,222.0329,-0.9611758,0.2759368,-0.0000842
-288.40070000000003,9.6619,222.0328,-0.9468313,0.3217305,-0.0000813
-287.9903,10.7364,222.0327,-0.9342730,0.3565585,-0.0000797
-287.5633,11.8045,222.0326,-0.9204340,0.3908979,-0.0000779
-287.19259999999997,12.646,222.0326,-0.9083975,0.4181077,-0.0000828
-286.689,13.6478,222.0326,-0.8915406,0.4529407,-0.0000969
-286.1784,14.646,222.0326,-0.8733487,0.4870955,-0.0001110
-285.5545,15.67,222.0326,-0.8535224,0.5210561,-0.0001207
-284.9252,16.6906,222.0326,-0.8323762,0.5542109,-0.0001302
-284.16949999999997,17.7342,222.0326,-0.8067181,0.5909365,-0.0001231
-283.69,18.3765,222.0325,-0.7903212,0.6126927,-0.0001106
-283.2046,19.0141,222.0324,-0.7733378,0.6339942,-0.0000980
-282.4383,19.8737,222.0322,-0.7480305,0.6636644,-0.0000845
-281.672,20.7333,222.032,-0.7215856,0.6923252,-0.0000708
-280.9791,21.4187,222.0321,-0.6999092,0.7142318,-0.0000761
-280.2695,22.087,222.0321,-0.6775680,0.7354601,-0.0000812
-279.5801,22.7181,222.0321,-0.6514721,0.7586726,-0.0000922
-278.9626,23.2232,222.0321,-0.6306610,0.7760584,-0.0000982
-278.3337,23.7144,222.032,-0.6093862,0.7928736,-0.0001041
-277.4065,24.4322,222.0318,-0.5787976,0.8154712,-0.0001066
-276.2428,25.1949,222.0319,-0.5443928,0.8388304,-0.0001012
-275.0671,25.9391,222.032,-0.5090466,0.8607390,-0.0000956
-273.9253,26.545,222.0322,-0.4646154,0.8855126,-0.0000789
-271.6061,27.6329,222.0324,-0.3854144,0.9227436,-0.0000610
-267.8021,28.9651,222.0322,-0.2627468,0.9648648,-0.0000483
-255.5853,29.6543,223.7257,0.1484066,0.9889264,0.0002465
-252.285,28.9899,223.727,0.2618901,0.9650977,-0.0000645
-250.7064,28.501,223.7271,0.3046442,0.9524662,-0.0000919
-248.4049,27.6426,223.7271,0.3905720,0.9205724,-0.0001040
-246.0747,26.5462,223.7272,0.4648183,0.8854061,-0.0001066
-243.7969,25.2213,223.7272,0.5399888,0.8416722,-0.0001066
-242.68880000000001,24.4944,223.7272,0.5762209,0.8172940,-0.0001067
-241.7048,23.7429,223.7273,0.6103715,0.7921153,-0.0001182
-240.8154,23.0499,223.7274,0.6400962,0.7682947,-0.0001292
-240.2758,22.597,223.7273,0.6572464,0.7536757,-0.0001408
-239.6986,22.058,223.7273,0.6780103,0.7350524,-0.0001543
-239.1214,21.519,223.7274,0.6982467,0.7158572,-0.0001677
-238.3274,20.7343,223.7275,0.7219620,0.6919327,-0.0001773
-237.5593,19.8741,223.7275,0.7478242,0.6638968,-0.0001760
-236.7935,19.0118,223.7275,0.7725983,0.6348951,-0.0001744
-236.1373,18.1455,223.7274,0.7972189,0.6036903,-0.0001622
-235.4857,17.2755,223.7272,0.8205799,0.5715318,-0.0001498
-235.0702,16.6836,223.7275,0.8342220,0.5514287,-0.0001399
-234.4113,15.616,223.7275,0.8556149,0.5176128,-0.0001248
-233.7613,14.5429,223.7275,0.8756379,0.4829682,-0.0001094
-233.2081,13.4392,223.7276,0.8942438,0.4475801,-0.0001125
-232.6549,12.3354,223.7276,0.9114203,0.4114766,-0.0001154
-232.247,11.3383,223.7276,0.9267645,0.3756428,-0.0001213
-231.8503,10.3367,223.7277,0.9407005,0.3392383,-0.0001271
-231.5971,9.6554,223.7278,0.9467093,0.3220892,-0.0001252
-231.2954,8.6356,223.7278,0.9571310,0.2896554,-0.0001145
-230.99360000000001,7.6159,223.7278,0.9664419,0.2568855,-0.0001038
-230.7969,6.8341,223.7279,0.9716626,0.2363723,-0.0000962
-230.5778,5.7448,223.728,0.9814292,0.1918246,-0.0000852
-230.3696,4.6535,223.728,0.9891546,0.1468779,-0.0000741
-230.3488,4.5405,223.728,0.9885059,0.1511820,-0.0000747
-230.1979,3.2273,223.7277,0.9943728,0.1059372,-0.0000802
-230.0618,1.9124,223.7275,0.9981699,0.0604720,-0.0000855
-230.03379999999999,0.7025,223.7279,0.9997487,0.0224161,-0.0001095
-230.0058,-0.5074,223.72820000000002,0.9998772,-0.0156723,-0.0001333
-230.05270000000002,-1.4581,223.72820000000002,0.9989196,-0.0464721,-0.0001482
-230.1162,-2.408,223.7283,0.9970135,-0.0772278,-0.0001630
-230.2174,-3.5688,223.7283,0.9934537,-0.1142351,-0.0001682
-230.3987,-4.7187,223.7284,0.9878043,-0.1557003,-0.0001667
-230.57999999999998,-5.8687,223.7286,0.9804250,-0.1968928,-0.0001650
-230.8565,-7.0246,223.7286,0.9716537,-0.2364085,-0.0001647
-231.1414,-8.1786,223.7286,0.9612905,-0.2755370,-0.0001641
-231.2975,-8.7198,223.7287,0.9565916,-0.2914317,-0.0001606
-231.7191,-9.9407,223.7288,0.9434172,-0.3316082,-0.0001452
-232.1558,-11.1564,223.7289,0.9285562,-0.3711919,-0.0001295
-232.6211,-12.2024,223.72899999999998,0.9136951,-0.4064003,-0.0001228
-233.0863,-13.2485,223.7291,0.8974996,-0.4410152,-0.0001160
-233.4712,-13.9796,223.72899999999998,0.8871047,-0.4615682,-0.0001159
-233.9692,-14.871,223.72899999999998,0.8693394,-0.4942156,-0.0001188
-234.4742,-15.7584,223.7291,0.8503731,-0.5261802,-0.0001215
-235.1781,-16.8024,223.7292,0.8262601,-0.5632888,-0.0001330
-235.8863,-17.8435,223.7292,0.8005288,-0.5992943,-0.0001442
-235.9112,-17.8801,223.7293,0.7994957,-0.6006718,-0.0001449
-236.6658,-18.8205,223.7293,0.7766815,-0.6298935,-0.0001587
-237.4286,-19.7543,223.7293,0.7527999,-0.6582494,-0.0001723
-237.9417,-20.3181,223.7294,0.7359185,-0.6770701,-0.0001742
-238.4752,-20.8632,223.7295,0.7185667,-0.6954580,-0.0001759
-239.0752,-21.4774,223.7295,0.6995754,-0.7145588,-0.0001688
-239.6926,-22.0737,223.7294,0.6800766,-0.7331411,-0.0001615
-240.5602,-22.8188,223.7298,0.6490028,-0.7607860,-0.0001454
-241.4316,-23.5595,223.7301,0.6168063,-0.7871149,-0.0001291
-242.0394,-24.0013,223.7295,0.5962015,-0.8028348,-0.0001216
-242.6473,-24.4431,223.72899999999998,0.5751962,-0.8180155,-0.0001140
-243.7875,-25.239,223.7289,0.5345242,-0.8451532,-0.0001055
-244.92079999999999,-25.9043,223.7287,0.4962541,-0.8681773,-0.0001090
-246.0597,-26.5598,223.7284,0.4569941,-0.8894697,-0.0001122
-247.2266,-27.1202,223.7284,0.4183388,-0.9082911,-0.0001223
-248.3803,-27.6555,223.7285,0.3797008,-0.9251093,-0.0001320
-249.5447,-28.0934,223.7285,0.3435587,-0.9391312,-0.0001433
-250.7121,-28.5233,223.7285,0.3069002,-0.9517417,-0.0001545
-251.8791,-28.8572,223.7285,0.2719800,-0.9623029,-0.0001572
-253.0504,-29.1765,223.7285,0.2366978,-0.9715833,-0.0001596
-254.1061,-29.3991,223.7283,0.1975229,-0.9802983,-0.0001480
-255.0854,-29.574,223.7286,0.1641353,-0.9864378,-0.0001336
-256.066,-29.7408,223.7289,0.1305586,-0.9914406,-0.0001190
-257.4018,-29.8599,223.7295,0.0853986,-0.9963469,-0.0001097
-258.7388,-29.9654,223.73,0.0400624,-0.9991972,-0.0001001
-258.8524,-29.9735,223.7299,0.0437193,-0.9990438,-0.0001003
-260.0091,-29.9776,223.7299,0.0036452,-0.9999934,-0.0000994
-261.1658,-29.9728,223.7298,-0.0364348,-0.9993360,-0.0000983
-262.5325,-29.8683,223.7299,-0.0835890,-0.9965003,-0.0001084
-263.8975,-29.7442,223.7301,-0.1305566,-0.9914408,-0.0001184
-265.1348,-29.5342,223.73,-0.1728325,-0.9849512,-0.0001345
-266.3337,-29.3207,223.7299,-0.2132929,-0.9769883,-0.0001498
-267.5711,-29.0068,223.7301,-0.2519910,-0.9677296,-0.0001527
-268.4316,-28.7681,223.7299,-0.2791562,-0.9602457,-0.0001465
-269.2899,-28.5224,223.7297,-0.3060999,-0.9519994,-0.0001401
-270.456,-28.0885,223.7298,-0.3426946,-0.9394468,-0.0001307
-271.622,-27.6546,223.7299,-0.3787765,-0.9254882,-0.0001211
-272.7695,-27.122,223.7299,-0.4198590,-0.9075893,-0.0001206
-273.9103,-26.5752,223.73,-0.4600984,-0.8878679,-0.0001199
-273.9306,-26.5648,223.73,-0.4608601,-0.8874728,-0.0001199
-275.0703,-25.911,223.7298,-0.5000770,-0.8659809,-0.0001200
-276.203,-25.2452,223.7297,-0.5382938,-0.8427572,-0.0001198
-276.2466,-25.2195,223.7296,-0.5399746,-0.8416813,-0.0001198
-277.3598,-24.4387,223.7297,-0.5799760,-0.8146336,-0.0001184
-278.4596,-23.6391,223.7297,-0.6186251,-0.7856863,-0.0001166
-279.3875,-22.8635,223.7296,-0.6503724,-0.7596155,-0.0001180
-280.305,-22.0759,223.7295,-0.6810221,-0.7322628,-0.0001191
-281.2057,-21.1825,223.7292,-0.7078995,-0.7063131,-0.0001293
-282.0937,-20.2765,223.7289,-0.7337888,-0.6793776,-0.0001392
-282.6298,-19.6834,223.7287,-0.7519148,-0.6592603,-0.0001442
-283.3635,-18.7847,223.7286,-0.7756342,-0.6311827,-0.0001434
-284.0892,-17.8796,223.7285,-0.7983057,-0.6022524,-0.0001424
-284.7933,-16.8448,223.7284,-0.8255614,-0.5643123,-0.0001419
-285.4935,-15.8073,223.7284,-0.8510154,-0.5251407,-0.0001412
-286.1084,-14.7317,223.7284,-0.8708191,-0.4916035,-0.0001529
-286.6877,-13.6938,223.7284,-0.8883605,-0.4591466,-0.0001641
-287.1107,-12.8071,223.7303,-0.9031499,-0.4293254,-0.0001710
-287.4775,-11.9825,223.7293,-0.9163008,-0.4004906,-0.0001743
-287.8442,-11.1579,223.7283,-0.9285315,-0.3712537,-0.0001773
-288.2872,-9.9218,223.7284,-0.9439854,-0.3299873,-0.0001769
-288.714,-8.6799,223.7285,-0.9576063,-0.2880802,-0.0001762
-288.9386,-7.8522,223.7284,-0.9647707,-0.2630921,-0.0001718
-289.1448,-7.0193,223.7284,-0.9712832,-0.2379262,-0.0001672
-289.4389,-5.7534,223.7284,-0.9793759,-0.2020465,-0.0001622
-289.6028,-4.7107,223.7284,-0.9872913,-0.1589211,-0.0001636
-289.7667,-3.668,223.7284,-0.9933086,-0.1154901,-0.0001647
-289.783,-3.5644,223.7284,-0.9932509,-0.1159851,-0.0001645
-289.8841,-2.4038,223.7283,-0.9968460,-0.0793596,-0.0001607
-289.9619,-1.2413,223.72820000000002,-0.9990911,-0.0426265,-0.0001567
-289.9878,-0.1869,223.72820000000002,-0.9999919,-0.0040196,-0.0001424
-289.9607,1.027,223.7281,-0.9994756,0.0323792,-0.0001268
-289.9103,2.2401,223.728,-0.9976349,0.0687351,-0.0001111
-289.784,3.3958,223.7279,-0.9941489,0.1080182,-0.0000988
-289.6497,4.5506,223.7278,-0.9891167,0.1471332,-0.0000863
-289.4302,5.7057,223.7278,-0.9823491,0.1870566,-0.0000844
-289.1974,6.8583,223.7278,-0.9739709,0.2266733,-0.0000825
-288.8872,8.0121,223.7278,-0.9638396,0.2664831,-0.0000881
-288.6459,8.8311,223.7278,-0.9555736,0.2947527,-0.0000923
-288.4047,9.6501,223.7277,-0.9464786,0.3227665,-0.0000964
-288.058,10.5664,223.7277,-0.9353868,0.3536263,-0.0000966
-287.6983,11.4778,223.7276,-0.9232891,0.3841058,-0.0000966
-287.2358,12.5591,223.7274,-0.9107121,0.4130417,-0.0000978
-286.7357,13.554,223.7274,-0.8940166,0.4480338,-0.0001058
-286.2355,14.5489,223.7274,-0.8759772,0.4823525,-0.0001135
-285.5873,15.6177,223.7275,-0.8555329,0.5177484,-0.0001247
-284.931,16.6816,223.7275,-0.8336592,0.5522793,-0.0001357
-284.3621,17.4778,223.7275,-0.8131163,0.5821013,-0.0001394
-283.7707,18.269,223.7274,-0.7919357,0.6106045,-0.0001406
-283.1697,19.0528,223.7273,-0.7697564,0.6383377,-0.0001416
-282.4226,19.8915,223.7272,-0.7455778,0.6664186,-0.0001455
-281.6756,20.7302,223.727,-0.7203754,0.6935844,-0.0001492
-281.086,21.3134,223.727,-0.7007873,0.7133702,-0.0001478
-280.4857,21.8859,223.727,-0.6806560,0.7326031,-0.0001462
-279.7266,22.5949,223.727,-0.6562829,0.7545149,-0.0001380
-278.5612,23.5369,223.7269,-0.6196271,0.7848963,-0.0001241
-277.4053,24.4329,223.7266,-0.5792564,0.8151454,-0.0001127
-276.2873,25.1662,223.7267,-0.5422786,0.8401987,-0.0001031
-275.1582,25.8824,223.7268,-0.5042190,0.8635758,-0.0000933
-275.0864,25.9275,223.7268,-0.5013249,0.8652591,-0.0000922
-273.8832,26.5673,223.727,-0.4620103,0.8868745,-0.0000752
-272.6697,27.1873,223.7272,-0.4217658,0.9067048,-0.0000580
-271.5467,27.6577,223.7272,-0.3888201,0.9213137,-0.0000552
-269.3918,28.4682,223.7271,-0.3136347,0.9495437,-0.0000543
-266.1489,29.3397,223.7268,-0.2083800,0.9780479,0.0000777
-255.864,29.6918,225.4213,0.1386795,0.9903373,-0.0001227
-252.0534,28.9238,225.4219,0.2647535,0.9643161,-0.0000884
-249.5626,28.1227,225.4219,0.3498776,0.9367954,-0.0000925
-247.2338,27.147,225.422,0.4238835,0.9057167,-0.0001086
-244.9111,25.9258,225.422,0.5003335,0.8658328,-0.0001136
-243.0995,24.7638,225.422,0.5629509,0.8264903,-0.0001104
-242.4229,24.3031,225.4221,0.5847374,0.8112226,-0.0001117
-241.46280000000002,23.5538,225.4222,0.6180054,0.7861739,-0.0001246
-240.511,22.794,225.4222,0.6502016,0.7597617,-0.0001373
-239.8089,22.1604,225.4222,0.6736798,0.7390233,-0.0001523
-239.1171,21.5154,225.4222,0.6964969,0.7175598,-0.0001670
-238.3276,20.735,225.4224,0.7222442,0.6916381,-0.0001772
-237.5609,19.8763,225.4224,0.7485854,0.6630383,-0.0001756
-236.7965,19.0155,225.4224,0.7737949,0.6334362,-0.0001738
-236.0145,17.9818,225.4223,0.8021082,0.5971787,-0.0001591
-235.248,16.9367,225.4223,0.8287241,0.5596573,-0.0001440
-234.8571,16.3385,225.4223,0.8411952,0.5407315,-0.0001345
-234.1162,15.1385,225.4224,0.8647334,0.5022311,-0.0001181
-233.7603,14.5412,225.4224,0.8757963,0.4826809,-0.0001114
-233.2104,13.4444,225.4224,0.8946736,0.4467205,-0.0001139
-232.6604,12.3475,225.4224,0.9120751,0.4100232,-0.0001162
-232.1718,11.1491,225.4225,0.9285431,0.3712245,-0.0001213
-231.7041,9.9423,225.4226,0.9433616,0.3317663,-0.0001261
-231.4535,9.1711,225.4224,0.9526453,0.3040836,-0.0001209
-231.2255,8.4011,225.4226,0.9606835,0.2776457,-0.0001122
-230.9975,7.6311,225.4227,0.9679882,0.2509957,-0.0001034
-230.8028,6.8583,225.4228,0.9739736,0.2266616,-0.0000952
-230.5692,5.7052,225.4228,0.9823015,0.1873064,-0.0000863
-230.3504,4.5493,225.4229,0.9890400,0.1476480,-0.0000772
-230.1975,3.2284,225.4226,0.9944554,0.1051589,-0.0000830
-230.0614,1.9056,225.4224,0.9980464,0.0624768,-0.0000887
-230.0334,0.7092,225.4227,0.9997677,0.0215540,-0.0001114
-230.0055,-0.4872,225.4231,0.9998117,-0.0194051,-0.0001338
-230.0513,-1.441,225.4231,0.9986902,-0.0511652,-0.0001470
-230.1146,-2.3939,225.4232,0.9965600,-0.0828737,-0.0001601
-230.2163,-3.5616,225.4232,0.9931195,-0.1171051,-0.0001642
-230.3998,-4.7235,225.4233,0.9881098,-0.1537496,-0.0001627
-230.5833,-5.8854,225.4235,0.9817485,-0.1901837,-0.0001609
-230.8976,-7.192,225.4235,0.9715863,-0.2366857,-0.0001579
-231.2322,-8.4935,225.4236,0.9592227,-0.2826514,-0.0001546
-231.63,-9.6831,225.4237,0.9462599,-0.3234070,-0.0001449
-232.0475,-10.866,225.4238,0.9315664,-0.3635712,-0.0001349
-232.3839,-11.6637,225.424,0.9227435,-0.3854146,-0.0001297
-232.7424,-12.4706,225.4241,0.9106133,-0.4132595,-0.0001258
-233.1009,-13.2776,225.42419999999998,0.8976431,-0.4407231,-0.0001218
-233.457,-13.955,225.424,0.8857838,-0.4640982,-0.0001210
-233.8306,-14.6233,225.4238,0.8733159,-0.4871544,-0.0001201
-234.474,-15.7578,225.424,0.8503043,-0.5262914,-0.0001209
-235.1906,-16.8212,225.4241,0.8266592,-0.5627028,-0.0001286
-235.9121,-17.8813,225.42419999999998,0.8014560,-0.5980537,-0.0001360
-236.6653,-18.8206,225.42419999999998,0.7774693,-0.6289209,-0.0001461
-237.427,-19.7529,225.42419999999998,0.7522945,-0.6588270,-0.0001560
-238.2723,-20.6565,225.4244,0.7237457,-0.6900667,-0.0001569
-238.8505,-21.2477,225.4244,0.7050629,-0.7091447,-0.0001519
-239.4383,-21.8294,225.4244,0.6858774,-0.7277171,-0.0001467
-240.2805,-22.5801,225.4245,0.6591091,-0.7520473,-0.0001368
-240.8543,-23.0715,225.4248,0.6381528,-0.7699097,-0.0001293
-241.4314,-23.559,225.425,0.6167126,-0.7871884,-0.0001218
-242.2498,-24.1559,225.4246,0.5899639,-0.8074296,-0.0001134
-243.0752,-24.7432,225.4241,0.5625513,-0.8267624,-0.0001048
-243.7526,-25.219,225.4239,0.5396543,-0.8418867,-0.0000990
-244.9098,-25.8981,225.4236,0.5015298,-0.8651404,-0.0000971
-246.07319999999999,-26.5666,225.4233,0.4624050,-0.8866688,-0.0000951
-246.178,-26.6198,225.4233,0.4576707,-0.8891217,-0.0000959
-247.2808,-27.1458,225.4233,0.4208892,-0.9071121,-0.0001085
-248.3895,-27.6591,225.42340000000002,0.3834020,-0.9235816,-0.0001210
-249.5501,-28.0957,225.42340000000002,0.3457627,-0.9383220,-0.0001372
-250.7137,-28.5239,225.42340000000002,0.3075584,-0.9515292,-0.0001532
-251.8727,-28.8559,225.42340000000002,0.2694119,-0.9630250,-0.0001738
-253.0357,-29.1735,225.4235,0.2308377,-0.9729922,-0.0001942
-253.6903,-29.3252,225.4235,0.2099134,-0.9777200,-0.0002175
-254.8995,-29.5411,225.424,0.1702564,-0.9853997,-0.0003146
-256.1108,-29.7451,225.4246,0.1303216,-0.9914717,-0.0004112
-257.4749,-29.8666,225.4254,0.0847004,-0.9964063,-0.0004936
-258.8404,-29.9728,225.4261,0.0389007,-0.9992429,-0.0005749
-260.0028,-29.9781,225.4259,0.0011066,-0.9999993,-0.0004854
-261.1652,-29.9726,225.4256,-0.0366892,-0.9993266,-0.0003953
-262.5532,-29.8668,225.4254,-0.0827266,-0.9965722,-0.0002836
-263.9395,-29.74,225.4253,-0.1285882,-0.9916981,-0.0001714
-265.2019,-29.5228,225.4252,-0.1711637,-0.9852426,-0.0001612
-266.4616,-29.2907,225.4252,-0.2134218,-0.9769601,-0.0001507
-267.2945,-29.0829,225.4251,-0.2418951,-0.9703024,-0.0001495
-268.1229,-28.8572,225.4249,-0.2701616,-0.9628150,-0.0001482
-269.2887,-28.5229,225.4246,-0.3066151,-0.9518336,-0.0001381
-270.4514,-28.0903,225.4248,-0.3445652,-0.9387624,-0.0001256
-271.6141,-27.6576,225.4249,-0.3819602,-0.9241788,-0.0001130
-272.7756,-27.1197,225.4249,-0.4220752,-0.9065608,-0.0001089
-273.9293,-26.5653,225.4249,-0.4613800,-0.8872026,-0.0001046
-275.0938,-25.8977,225.4248,-0.5003647,-0.8658148,-0.0001084
-276.2507,-25.217,225.4246,-0.5383600,-0.8427150,-0.0001119
-277.1567,-24.5809,225.4246,-0.5711453,-0.8208490,-0.0001137
-278.0546,-23.9334,225.4245,-0.6030436,-0.7977082,-0.0001153
-278.7956,-23.3687,225.4246,-0.6250744,-0.7805651,-0.0001143
-279.5548,-22.7209,225.4245,-0.6521657,-0.7580764,-0.0001141
-280.3114,-22.0699,225.4245,-0.6784485,-0.7346479,-0.0001138
-281.1847,-21.2041,225.42419999999998,-0.7064832,-0.7077298,-0.0001213
-282.0475,-20.3278,225.4239,-0.7334507,-0.6797427,-0.0001286
-282.5763,-19.749,225.4236,-0.7509467,-0.6603628,-0.0001329
-283.3546,-18.7964,225.42340000000002,-0.7774781,-0.6289100,-0.0001325
-284.1203,-17.8336,225.4233,-0.8026931,-0.5963923,-0.0001320
-284.8259,-16.7973,225.4233,-0.8271907,-0.5619213,-0.0001335
-285.5263,-15.7574,225.4232,-0.8502090,-0.5264453,-0.0001347
-286.1103,-14.7293,225.4233,-0.8702652,-0.4925834,-0.0001442
-286.6861,-13.6965,225.4233,-0.8889735,-0.4579586,-0.0001534
-287.0503,-12.9338,225.4233,-0.9023570,-0.4309893,-0.0001587
-287.3982,-12.1634,225.4233,-0.9149226,-0.4036294,-0.0001639
-287.8427,-11.1618,225.4231,-0.9291444,-0.3697169,-0.0001672
-288.2779,-9.9496,225.4232,-0.9436631,-0.3309077,-0.0001663
-288.6986,-8.7323,225.4232,-0.9565616,-0.2915304,-0.0001652
-288.9008,-8.0074,225.4232,-0.9638666,-0.2663855,-0.0001623
-289.0814,-7.2764,225.4232,-0.9705107,-0.2410579,-0.0001593
-289.4172,-5.8825,225.4232,-0.9815219,-0.1913498,-0.0001561
-289.6006,-4.7207,225.4232,-0.9879339,-0.1548759,-0.0001581
-289.7839,-3.5589,225.4232,-0.9929910,-0.1181895,-0.0001599
-289.8848,-2.4014,225.4232,-0.9967691,-0.0803201,-0.0001565
-289.9624,-1.242,225.4231,-0.9991035,-0.0423343,-0.0001529
-289.9934,-0.445,225.4231,-0.9998636,-0.0165135,-0.0001455
-289.9697,0.6332,225.4236,-0.9997424,0.0226979,-0.0001301
-289.9328,1.7111,225.4241,-0.9980839,0.0618743,-0.0001145
-289.9113,2.2264,225.4229,-0.9972406,0.0742367,-0.0001098
-289.7854,3.3873,225.4228,-0.9937679,0.1114693,-0.0000996
-289.65,4.5471,225.4227,-0.9889055,0.1485459,-0.0000892
-289.4308,5.7052,225.4227,-0.9822985,0.1873224,-0.0000905
-289.1967,6.8605,225.4227,-0.9741716,0.2258090,-0.0000916
-288.8854,8.0194,225.4227,-0.9646491,0.2635376,-0.0001020
-288.6169,8.9266,225.4227,-0.9555412,0.2948576,-0.0001126
-288.3375,9.8304,225.4227,-0.9454167,0.3258639,-0.0001231
-287.8903,10.9918,225.4224,-0.9311793,0.3645616,-0.0001256
-287.4229,12.1454,225.4222,-0.9153586,0.4026396,-0.0001279
-287.026,12.978,225.4222,-0.9028731,0.4299071,-0.0001258
-286.6123,13.8026,225.4223,-0.8895756,0.4567880,-0.0001237
-286.09590000000003,14.7867,225.4223,-0.8734232,0.4869619,-0.0001257
-285.4851,15.7836,225.4225,-0.8524826,0.5227555,-0.0001324
-284.8651,16.7749,225.4226,-0.8300761,0.5576502,-0.0001388
-284.2685,17.6034,225.4225,-0.8100233,0.5863976,-0.0001409
-283.6576,18.4215,225.4223,-0.7889755,0.6144246,-0.0001427
-283.2026,19.0165,225.4222,-0.7741472,0.6330056,-0.0001434
-282.4367,19.8762,225.422,-0.7489186,0.6626620,-0.0001466
-281.6708,20.7358,225.4218,-0.7225546,0.6913139,-0.0001496
-281.0812,21.3187,225.4218,-0.7029603,0.7112291,-0.0001482
-280.4811,21.8909,225.4218,-0.6828173,0.7305891,-0.0001467
-279.7231,22.5976,225.4219,-0.6576575,0.7533171,-0.0001386
-279.1487,23.0795,225.4218,-0.6396679,0.7686514,-0.0001319
-278.5571,23.5407,225.4217,-0.6213210,0.7835561,-0.0001252
-277.4035,24.434,225.4214,-0.5799981,0.8146178,-0.0001150
-276.45,25.0595,225.4214,-0.5455508,0.8380778,-0.0001095
-275.4898,25.6744,225.4215,-0.5101558,0.8600820,-0.0001038
-275.0898,25.9252,225.4216,-0.4999660,0.8660450,-0.0001010
-273.929,26.5441,225.4218,-0.4633323,0.8861846,-0.0000867
-271.6002,27.6357,225.422,-0.3878668,0.9217154,-0.0000631
-266.6109,29.2365,225.4219,-0.2185788,0.9758193,-0.0000883
-255.4473,29.6369,227.1163,0.1494956,0.9887624,-0.0001494
-252.203,28.9664,227.1168,0.2612601,0.9652684,-0.0000753
-250.46620000000001,28.4219,227.1167,0.3154701,0.9489355,-0.0000721
-248.285,27.5925,227.1168,0.3921290,0.9199102,-0.0000997
-246.081,26.5505,227.1169,0.4675549,0.8839640,-0.0001176
-244.2106,25.4863,227.1169,0.5263529,0.8502662,-0.0001174
-243.508,25.0324,227.1169,0.5486859,0.8360286,-0.0001145
-242.5312,24.3846,227.1169,0.5817341,0.8133790,-0.0001128
-241.6128,23.6714,227.117,0.6129913,0.7900897,-0.0001227
-240.6988,22.9525,227.1171,0.6433170,0.7655999,-0.0001323
-240.1153,22.4465,227.117,0.6628573,0.7487457,-0.0001451
-239.5286,21.9006,227.117,0.6823661,0.7310106,-0.0001571
-238.9477,21.3484,227.117,0.7014006,0.7127673,-0.0001690
-238.2441,20.642,227.1172,0.7232401,0.6905967,-0.0001772
-237.4645,19.7692,227.1172,0.7501717,0.6612430,-0.0001752
-236.6972,18.8857,227.1172,0.7759129,0.6308400,-0.0001730
-235.9989,17.9617,227.1171,0.8010157,0.5986433,-0.0001603
-235.3126,17.0287,227.1171,0.8247834,0.5654488,-0.0001473
-234.8453,16.3208,227.1171,0.8388722,0.5443284,-0.0001368
-234.2977,15.4332,227.1172,0.8580163,0.5136224,-0.0001236
-233.7596,14.5398,227.1172,0.8760370,0.4822439,-0.0001102
-233.1788,13.3802,227.1173,0.8957779,0.4445019,-0.0001141
-232.6067,12.2163,227.1173,0.9138938,0.4059534,-0.0001178
-232.1725,11.1521,227.1174,0.9285368,0.3712404,-0.0001231
-231.755,10.0812,227.1174,0.9418618,0.3360005,-0.0001282
-231.5022,9.3378,227.1174,0.9505496,0.3105726,-0.0001236
-231.2256,8.402,227.1174,0.9602820,0.2790312,-0.0001128
-230.9555,7.4644,227.1175,0.9689681,0.2471858,-0.0001018
-230.7524,6.6076,227.1177,0.9753288,0.2207570,-0.0000928
-230.546,5.5841,227.1177,0.9832002,0.1825303,-0.0000844
-230.3519,4.5584,227.1177,0.9895740,0.1440255,-0.0000760
-230.1976,3.2311,227.1175,0.9945954,0.1038268,-0.0000812
-230.06119999999999,1.9019,227.1173,0.9979845,0.0634576,-0.0000863
-230.0333,0.7104,227.1176,0.9997301,0.0232330,-0.0001099
-230.0055,-0.4811,227.118,0.9998550,-0.0170293,-0.0001334
-230.0505,-1.4368,227.118,0.9987272,-0.0504370,-0.0001475
-230.1139,-2.3916,227.1181,0.9964836,-0.0837883,-0.0001614
-230.2553,-3.8093,227.1181,0.9922625,-0.1241580,-0.0001634
-230.418,-4.8407,227.1182,0.9871275,-0.1599354,-0.0001578
-230.5808,-5.8721,227.1183,0.9807029,-0.1955039,-0.0001519
-230.8697,-7.0814,227.1184,0.9709399,-0.2393234,-0.0001450
-231.1725,-8.2873,227.1185,0.9592200,-0.2826605,-0.0001378
-231.37630000000001,-8.95,227.1185,0.9541577,-0.2993044,-0.0001338
-231.5534,-9.462,227.1185,0.9480966,-0.3179825,-0.0001293
-231.9054,-10.4864,227.11860000000001,0.9348801,-0.3549636,-0.0001201
-232.2022,-11.259,227.1188,0.9266293,-0.3759762,-0.0001160
-232.6392,-12.2434,227.1189,0.9125682,-0.4089244,-0.0001148
-233.0762,-13.2278,227.119,0.8973361,-0.4413479,-0.0001135
-233.6047,-14.2202,227.1188,0.8820326,-0.4711883,-0.0001147
-234.068,-15.0504,227.1189,0.8658069,-0.5003782,-0.0001163
-234.549,-15.8702,227.119,0.8486156,-0.5290099,-0.0001178
-235.2266,-16.8744,227.1191,0.8258498,-0.5638902,-0.0001229
-235.9081,-17.8759,227.1192,0.8016512,-0.5977921,-0.0001278
-236.7163,-18.8837,227.1192,0.7762934,-0.6303717,-0.0001329
-237.5409,-19.8782,227.1192,0.7496125,-0.6618769,-0.0001378
-238.5215,-20.9116,227.1193,0.7173724,-0.6966899,-0.0001353
-239.0941,-21.4975,227.1193,0.6972738,-0.7168049,-0.0001314
-239.684,-22.0657,227.1193,0.6766114,-0.7363403,-0.0001274
-240.5523,-22.8132,227.1196,0.6460955,-0.7632566,-0.0001210
-241.4259,-23.5544,227.12,0.6145099,-0.7889091,-0.0001145
-242.45420000000001,-24.3058,227.1195,0.5811573,-0.8137912,-0.0001032
-243.4958,-25.0386,227.1189,0.5467985,-0.8372642,-0.0000918
-243.7617,-25.2249,227.1188,0.5433085,-0.8395331,-0.0000906
-244.912,-25.8996,227.1185,0.5024477,-0.8646076,-0.0000830
-246.0683,-26.5639,227.1181,0.4604321,-0.8876949,-0.0000752
-246.2625,-26.6626,227.1181,0.4535729,-0.8912192,-0.0000757
-247.3751,-27.1897,227.1182,0.4176967,-0.9085865,-0.0000876
-248.4954,-27.7,227.1182,0.3811569,-0.9245104,-0.0000993
-249.6028,-28.1154,227.1182,0.3444470,-0.9388057,-0.0000860
-250.7128,-28.5237,227.1181,0.3072026,-0.9516441,-0.0000726
-251.9376,-28.874,227.118,0.2661751,-0.9639247,-0.0000380
-253.1679,-29.2043,227.1179,0.2246594,-0.9744374,-0.0000034
-254.1962,-29.4161,227.1179,0.1922848,-0.9813392,-0.0000494
-255.1332,-29.5836,227.11860000000001,0.1609613,-0.9869607,-0.0001704
-256.0718,-29.7415,227.1192,0.1294749,-0.9915827,-0.0002912
-257.307,-29.8516,227.1201,0.0889833,-0.9960330,-0.0004191
-258.5422,-29.9617,227.1209,0.0483440,-0.9988306,-0.0005463
-259.8509,-29.9777,227.1207,0.0047248,-0.9999887,-0.0004383
-261.1596,-29.9726,227.1204,-0.0389034,-0.9992429,-0.0003295
-262.55,-29.8674,227.1202,-0.0831685,-0.9965355,-0.0001908
-263.9385,-29.7402,227.12,-0.1272699,-0.9918681,-0.0000518
-265.1243,-29.5373,227.1197,-0.1689807,-0.9856194,0.0000081
-266.3087,-29.3259,227.11939999999998,-0.2103909,-0.9776173,0.0000680
-267.691,-28.975,227.1196,-0.2553728,-0.9668427,0.0000493
-268.4874,-28.7523,227.1195,-0.2823303,-0.9593173,0.0000140
-269.2825,-28.525,227.1193,-0.3090666,-0.9510404,-0.0000214
-270.4444,-28.0928,227.1196,-0.3473572,-0.9377329,-0.0000523
-271.6063,-27.6606,227.1198,-0.3850770,-0.9228844,-0.0000831
-272.7671,-27.1242,227.1198,-0.4255862,-0.9049179,-0.0000855
-273.9196,-26.5702,227.1199,-0.4652596,-0.8851743,-0.0000878
-275.087,-25.902,227.1197,-0.5031845,-0.8641790,-0.0000964
-276.2462,-25.2199,227.1196,-0.5401639,-0.8415598,-0.0001048
-276.9459,-24.7288,227.1195,-0.5653280,-0.8248662,-0.0001086
-277.6432,-24.2341,227.1195,-0.5899765,-0.8074204,-0.0001123
-278.6494,-23.4907,227.1203,-0.6213003,-0.7835726,-0.0001118
-279.4821,-22.7836,227.1199,-0.6505948,-0.7594250,-0.0001098
-280.3101,-22.0711,227.11939999999998,-0.6789517,-0.7341829,-0.0001075
-281.1814,-21.2074,227.1191,-0.7077096,-0.7065034,-0.0001129
-282.0427,-20.3337,227.1187,-0.7353400,-0.6776984,-0.0001180
-282.5674,-19.7593,227.1185,-0.7545372,-0.6562572,-0.0001222
-283.3351,-18.821,227.1183,-0.7779633,-0.6283097,-0.0001236
-284.0927,-17.8746,227.1182,-0.8003547,-0.5995267,-0.0001249
-284.8106,-16.8202,227.1182,-0.8267663,-0.5625456,-0.0001274
-285.5231,-15.7622,227.1181,-0.8514704,-0.5244027,-0.0001296
-286.1094,-14.7318,227.1181,-0.8708514,-0.4915463,-0.0001362
-286.6862,-13.6961,227.1181,-0.8889652,-0.4579747,-0.0001427
-287.2234,-12.5562,227.119,-0.9056921,-0.4239360,-0.0001458
-287.5355,-11.853,227.1185,-0.9167859,-0.3993790,-0.0001460
-287.8475,-11.1498,227.118,-0.9272140,-0.3745320,-0.0001461
-288.2769,-9.9531,227.118,-0.9432713,-0.3320229,-0.0001455
-288.6927,-8.7516,227.118,-0.9573809,-0.2888283,-0.0001445
-289.0322,-7.4769,227.1181,-0.9689138,-0.2473983,-0.0001441
-289.225,-6.6781,227.1181,-0.9754790,-0.2200927,-0.0001454
-289.4178,-5.8793,227.1181,-0.9812747,-0.1926134,-0.0001467
-289.6014,-4.716,227.1181,-0.9876385,-0.1567490,-0.0001524
-289.785,-3.5527,227.1181,-0.9926918,-0.1206768,-0.0001579
-289.8852,-2.4024,227.118,-0.9968026,-0.0799033,-0.0001554
-289.9625,-1.2503,227.118,-0.9992394,-0.0389956,-0.0001528
-289.9893,-0.2263,227.118,-0.9999908,-0.0042830,-0.0001416
-289.9622,0.9988,227.1179,-0.9993643,0.0356494,-0.0001254
-289.9115,2.2231,227.1177,-0.9971439,0.0755250,-0.0001089
-289.7865,3.3815,227.1176,-0.9935010,0.1138234,-0.0000984
-289.651,4.5386,227.1176,-0.9883877,0.1519534,-0.0000878
-289.4165,5.7769,227.1176,-0.9809623,0.1941984,-0.0000874
-289.1582,7.0105,227.1175,-0.9717321,0.2360862,-0.0000867
-288.8139,8.2605,227.1175,-0.9619043,0.2733863,-0.0000814
-288.4091,9.6369,227.1173,-0.9470312,0.3211416,-0.0000500
-288.0108,10.6885,227.1171,-0.9347129,0.3554037,-0.0000076
-287.5933,11.7327,227.1169,-0.9211555,0.3891947,0.0000347
-287.1933,12.6471,227.1169,-0.9085968,0.4176744,0.0000453
-286.6941,13.6399,227.1169,-0.8918266,0.4523774,0.0000102
-286.1881,14.6291,227.1169,-0.8737316,0.4864084,-0.0000249
-285.5727,15.6427,227.117,-0.8540081,0.5202596,-0.0000709
-284.9505,16.652,227.1171,-0.8329738,0.5533123,-0.0001167
-284.2114,17.6805,227.1171,-0.8084298,0.5885926,-0.0001364
-283.712,18.3492,227.117,-0.7909843,0.6118365,-0.0001397
-283.2058,19.0126,227.117,-0.7728706,0.6345636,-0.0001428
-282.3601,19.9594,227.1168,-0.7451042,0.6669481,-0.0001465
-281.5061,20.8988,227.1165,-0.7159819,0.6981189,-0.0001498
-280.9216,21.4778,227.1166,-0.6968466,0.7172202,-0.0001475
-280.3212,22.0405,227.1167,-0.6772019,0.7357972,-0.0001450
-279.6115,22.6913,227.1167,-0.6529273,0.7574205,-0.0001371
-279.003,23.1931,227.1166,-0.6330221,0.7741337,-0.0001307
-278.3811,23.6783,227.1164,-0.6126892,0.7903239,-0.0001243
-277.4049,24.4329,227.1161,-0.5794231,0.8150269,-0.0001191
-276.6034,24.959,227.1162,-0.5526298,0.8334268,-0.0001193
-275.7988,25.4804,227.1163,-0.5252527,0.8509463,-0.0001194
-274.8492,26.0531,227.1166,-0.4944135,0.8692268,-0.0001156
-273.8099,26.6064,227.1168,-0.4598487,0.8879973,-0.0001014
-272.7645,27.1478,227.1169,-0.4245725,0.9053939,-0.0000871
-270.4229,28.1279,227.1168,-0.3556687,0.9346121,-0.0000550
-266.6179,29.2351,227.1168,-0.2221961,0.9750020,-0.0001015
-255.5711,29.6538,228.8111,0.1466299,0.9891914,-0.0001499
-252.0442,28.9205,228.8115,0.2669140,0.9637204,-0.0000719
-249.7409,28.1817,228.8115,0.3504816,0.9365696,-0.0000840
-248.4056,27.6441,228.8116,0.3910554,0.9203671,-0.0000986
-246.0702,26.5453,228.8117,0.4633130,0.8861947,-0.0001133
-243.7491,25.192,228.8117,0.5382597,0.8427790,-0.0001122
-242.5954,24.433,228.8117,0.5795658,0.8149254,-0.0001105
-241.7031,23.7423,228.8118,0.6100726,0.7923455,-0.0001202
-240.8127,23.0491,228.8119,0.6397006,0.7686242,-0.0001296
-240.2754,22.5958,228.8117,0.6570744,0.7538257,-0.0001410
-239.698,22.0581,228.8118,0.6777726,0.7352716,-0.0001541
-239.1207,21.5203,228.8119,0.6979471,0.7161493,-0.0001671
-238.3253,20.7336,228.812,0.7216826,0.6922241,-0.0001765
-237.5578,19.8739,228.812,0.7476714,0.6640688,-0.0001754
-236.7934,19.0116,228.812,0.7725625,0.6349387,-0.0001741
-236.1354,18.1453,228.8119,0.7970546,0.6039072,-0.0001617
-235.48329999999999,17.2745,228.8118,0.8203010,0.5719320,-0.0001491
-235.044,16.6437,228.812,0.8344308,0.5511128,-0.0001373
-234.39600000000002,15.5938,228.812,0.8559542,0.5170516,-0.0001149
-233.7583,14.5376,228.812,0.8760881,0.4821510,-0.0000923
-233.2118,13.4478,228.812,0.8940123,0.4480423,-0.0000854
-232.6652,12.358,228.812,0.9106092,0.4132684,-0.0000784
-232.2473,11.3433,228.8121,0.9252739,0.3792997,-0.0000881
-231.8437,10.3227,228.8122,0.9386718,0.3448118,-0.0000976
-231.5005,9.3334,228.8122,0.9504502,0.3108768,-0.0001033
-231.2477,8.4777,228.8123,0.9590942,0.2830870,-0.0001010
-230.9948,7.622,228.8124,0.9669259,0.2550574,-0.0000985
-230.799,6.8417,228.8126,0.9723963,0.2333355,-0.0000937
-230.5662,5.6944,228.8126,0.9814447,0.1917453,-0.0000852
-230.3501,4.5439,228.8126,0.9887152,0.1498077,-0.0000766
-230.1967,3.2264,228.8125,0.9944344,0.1053571,-0.0000819
-230.0615,1.907,228.8123,0.9981564,0.0606949,-0.0000870
-230.0334,0.7164,228.8126,0.9997389,0.0228510,-0.0001098
-230.0054,-0.4743,228.8129,0.9998871,-0.0150256,-0.0001324
-230.05,-1.4395,228.8129,0.9988944,-0.0470101,-0.0001465
-230.1144,-2.4037,228.8129,0.9968788,-0.0789465,-0.0001604
-230.2164,-3.5669,228.8129,0.9933672,-0.1149853,-0.0001622
-230.3992,-4.7223,228.8131,0.9880343,-0.1542345,-0.0001527
-230.582,-5.8778,228.8132,0.9811512,-0.1932417,-0.0001429
-230.8776,-7.1153,228.8133,0.9718960,-0.2354106,-0.0001312
-231.1904,-8.3487,228.8133,0.9608293,-0.2771407,-0.0001193
-231.5106,-9.3382,228.8132,0.9497853,-0.3129023,-0.0001089
-231.8244,-10.2501,228.8134,0.9395593,-0.3423861,-0.0001030
-232.1555,-11.1556,228.8136,0.9284184,-0.3715364,-0.0000970
-232.615,-12.1901,228.81380000000001,0.9141195,-0.4054448,-0.0001008
-233.0745,-13.2245,228.8139,0.8985828,-0.4388041,-0.0001044
-233.4703,-13.9816,228.81380000000001,0.8874904,-0.4608261,-0.0001078
-233.9686,-14.8728,228.8139,0.8697467,-0.4934985,-0.0001116
-234.4752,-15.7592,228.8139,0.8508006,-0.5254887,-0.0001152
-235.1876,-16.8177,228.814,0.8272968,-0.5617651,-0.0001178
-235.9056,-17.8723,228.8141,0.8022473,-0.5969919,-0.0001201
-236.6595,-18.8151,228.8141,0.7772852,-0.6291484,-0.0001224
-237.424,-19.7492,228.8141,0.7510350,-0.6602624,-0.0001244
-238.4381,-20.827,228.8142,0.7189824,-0.6950282,-0.0001234
-239.0566,-21.4591,228.8142,0.6997321,-0.7144053,-0.0001218
-239.6924,-22.0734,228.8143,0.6799598,-0.7332494,-0.0001202
-240.5594,-22.8198,228.81459999999998,0.6490824,-0.7607181,-0.0001160
-241.4324,-23.5591,228.8149,0.6170964,-0.7868875,-0.0001116
-242.0745,-24.0261,228.8144,0.5950079,-0.8037198,-0.0001044
-242.7167,-24.4931,228.8139,0.5724605,-0.8199323,-0.0000971
-243.8219,-25.2594,228.8137,0.5343833,-0.8452423,-0.0000792
-244.9449,-25.9187,228.8133,0.4990266,-0.8665867,-0.0000696
-246.0743,-26.5667,228.813,0.4628186,-0.8864530,-0.0000599
-247.23160000000001,-27.1242,228.813,0.4252066,-0.9050963,-0.0000617
-248.3981,-27.6622,228.813,0.3868452,-0.9221447,-0.0000634
-249.5527,-28.0975,228.8128,0.3469488,-0.9378841,0.0000355
-250.7108,-28.5232,228.8125,0.3064143,-0.9518982,0.0001344
-251.8766,-28.8579,228.8122,0.2710398,-0.9625681,0.0002654
-253.0468,-29.1771,228.8118,0.2352954,-0.9719238,0.0003960
-254.2049,-29.4183,228.8116,0.1957682,-0.9806501,0.0004041
-255.1416,-29.5855,228.8123,0.1635124,-0.9865412,0.0003016
-256.08,-29.7426,228.813,0.1310809,-0.9913717,0.0001987
-257.3776,-29.8583,228.8139,0.0882853,-0.9960952,0.0000705
-258.6758,-29.9664,228.8148,0.0453261,-0.9989722,-0.0000578
-259.9228,-29.9784,228.8148,0.0052582,-0.9999862,-0.0000536
-261.1699,-29.972,228.8147,-0.0348182,-0.9993937,-0.0000494
-262.5179,-29.8705,228.8145,-0.0813328,-0.9966870,0.0000802
-263.8643,-29.7477,228.8143,-0.1276709,-0.9918166,0.0002096
-265.0477,-29.5515,228.81380000000001,-0.1668442,-0.9859832,0.0003389
-266.22860000000003,-29.3404,228.8133,-0.2057558,-0.9786033,0.0004676
-267.4941,-29.0293,228.8137,-0.2466715,-0.9690991,0.0004197
-268.391,-28.7806,228.81380000000001,-0.2773886,-0.9607578,0.0002933
-269.2856,-28.5241,228.81380000000001,-0.3078247,-0.9514431,0.0001666
-270.4507,-28.0903,228.8143,-0.3448145,-0.9386709,0.0000580
-271.6158,-27.6564,228.8147,-0.3812762,-0.9244612,-0.0000506
-272.7784,-27.1195,228.8148,-0.4211685,-0.9069824,-0.0000640
-273.9321,-26.5634,228.8149,-0.4602619,-0.8877832,-0.0000773
-275.0559,-25.9201,228.8147,-0.4990436,-0.8665769,-0.0000881
-276.172,-25.2636,228.81459999999998,-0.5368504,-0.8436775,-0.0000987
-276.247,-25.2194,228.81459999999998,-0.5398223,-0.8417790,-0.0000997
-277.4016,-24.4113,228.81459999999998,-0.5807458,-0.8140850,-0.0001090
-278.5631,-23.5627,228.8152,-0.6188997,-0.7854700,-0.0001109
-279.4378,-22.8221,228.8148,-0.6501910,-0.7597708,-0.0001079
-280.3064,-22.0745,228.8144,-0.6804163,-0.7328258,-0.0001048
-281.1832,-21.2057,228.814,-0.7069310,-0.7072825,-0.0001062
-282.0499,-20.3267,228.8136,-0.7324874,-0.6807806,-0.0001075
-282.6674,-19.6377,228.8133,-0.7533866,-0.6575778,-0.0001108
-283.3844,-18.7616,228.8132,-0.7786768,-0.6274252,-0.0001139
-284.0909,-17.8771,228.8131,-0.8027611,-0.5963008,-0.0001168
-284.8091,-16.8228,228.8131,-0.8282408,-0.5603723,-0.0001214
-285.5215,-15.7645,228.813,-0.8521138,-0.5233566,-0.0001259
-286.1107,-14.7306,228.813,-0.8705804,-0.4920262,-0.0001303
-286.6889,-13.6904,228.813,-0.8878955,-0.4600451,-0.0001346
-287.1141,-12.8027,228.8148,-0.9023081,-0.4310917,-0.0001326
-287.4806,-11.9769,228.81380000000001,-0.9152987,-0.4027758,-0.0001280
-287.8471,-11.151,228.8128,-0.9274009,-0.3740689,-0.0001233
-288.2761,-9.9559,228.8128,-0.9427869,-0.3333959,-0.0001222
-288.6913,-8.7558,228.8129,-0.9563901,-0.2920923,-0.0001208
-289.0064,-7.5839,228.8129,-0.9664204,-0.2569663,-0.0001245
-289.2359,-6.6408,228.8129,-0.9740018,-0.2265404,-0.0001303
-289.4477,-5.6936,228.813,-0.9806255,-0.1958918,-0.0001361
-289.6159,-4.6284,228.813,-0.9877070,-0.1563163,-0.0001446
-289.784,-3.5631,228.813,-0.9931921,-0.1164882,-0.0001530
-289.8857,-2.4028,228.8129,-0.9968157,-0.0797399,-0.0001467
